-58.20177266053937 131.17408111248932 7.260813394846243 0.0 0.0 1.0
-68.10296746298565 39.08290248064188 9.23546329280664 0.0 0.0 1.0
59.230929268589605 35.010919319905796 10.345656833830605 0.0 0.0 1.0
70.32098510044752 56.450605026880226 12.285039022675557 0.0 0.0 1.0
-20.605157455757286 72.42608257889755 10.886091819407625 0.0 0.0 1.0
-68.60334516548538 -38.24172511137113 7.812059391039987 0.0 0.0 1.0
101.49901786803953 42.013120988386156 7.279214381853469 0.0 0.0 1.0
92.17022670168656 36.25416343240774 9.857204850163482 0.0 0.0 1.0
-72.10953969423466 74.58909005715205 9.28824290905127 0.0 0.0 1.0
12.37775239982238 27.834098027089368 7.585205656503419 0.0 0.0 1.0
10.255475502496395 -115.9323182726934 9.624989075718887 0.0 0.0 1.0
27.89290832388096 -81.2245615366969 10.427959187654329 0.0 0.0 1.0
13.574600853982968 -135.10699399180604 8.15855663508268 0.0 0.0 1.0
18.869524717293487 -67.74856694507459 9.04054711456851 0.0 0.0 1.0
25.280629265088074 -116.51123934315021 10.30362051025904 0.0 0.0 1.0
-29.742753711871327 -83.33224568481296 9.358996686726993 0.0 0.0 1.0
-26.62216384683001 -76.36539018080894 9.744507940847518 0.0 0.0 1.0
18.700049049866596 -4.205616678550847 10.03969346906689 0.0 0.0 1.0
-1.1430770707756897 -58.416544157464706 11.090753032330284 0.0 0.0 1.0
-18.183919736660123 -8.928061465473741 8.943290243945519 0.0 0.0 1.0
71.14808377823053 20.638950330259902 8.945372598113204 0.0 0.0 1.0
-37.450534624418495 -32.821723966389925 6.169632410568424 0.0 0.0 1.0
11.406858007813764 -109.00824713167137 9.67845748785427 0.0 0.0 1.0
-11.425822537983926 -107.51487817350225 9.318169225233158 0.0 0.0 1.0
2.348605059151456 -21.97407477536856 5.91192276415955 0.0 0.0 1.0
-4.070469713575433 -76.81213765122817 9.015140215821397 0.0 0.0 1.0
2.6866338609497062 -144.10989760939896 9.63045775415412 0.0 0.0 1.0
-20.102722404263307 -67.26097272271517 9.11925365006254 0.0 0.0 1.0
-1.964337506366638 -14.459691374917623 9.16952067265273 0.0 0.0 1.0
-5.8739284075339855 -4.3076865176440595 7.796216833107819 0.0 0.0 1.0
-92.99396342021406 4.1639921331553955 8.044277011907537 0.0 0.0 1.0
-30.579583758462434 -16.511810896299487 8.286747035822893 0.0 0.0 1.0
5.475041733710332 -56.84271487858654 11.076376570461541 0.0 0.0 1.0
64.7837348364532 -89.82431773519495 11.90791231894297 0.0 0.0 1.0
-34.53228265858053 -76.34609817501108 8.28153518566273 0.0 0.0 1.0
-50.09212143659903 -29.62805838700627 8.11594793874138 0.0 0.0 1.0
7.488586885671713 -102.96993788632957 10.39520068952132 0.0 0.0 1.0
41.91362827347483 -69.06392414073059 8.359437814122273 0.0 0.0 1.0
12.044950946664066 -52.548340803438585 6.15147213425624 0.0 0.0 1.0
14.291272792295597 -6.554571006700049 9.478084785674913 0.0 0.0 1.0
-54.561568578870705 -42.68369764485688 6.227029318704731 0.0 0.0 1.0
-28.370778626265118 -32.238344086739865 6.479579620942664 0.0 0.0 1.0
37.8002460566132 -55.88550356272143 6.578440857952373 0.0 0.0 1.0
41.08074135102377 -61.568233091240565 5.862802221695109 0.0 0.0 1.0
75.72647210170003 25.5244861162894 9.186202587032128 0.0 0.0 1.0
-58.50220044424749 -47.225181800222984 6.771304287616549 0.0 0.0 1.0
3.970270223911487 3.796777479871746 8.806315245000965 0.0 0.0 1.0
-93.47845041319079 58.64316802902912 8.970499111655533 0.0 0.0 1.0
-86.38173224411705 53.84178721043948 7.9161775076146625 0.0 0.0 1.0
-132.15855902092872 90.9423474809466 6.382003152102286 0.0 0.0 1.0
12.428583541029592 -100.18901989174023 10.313941204149845 0.0 0.0 1.0
-76.91133053564975 121.48023107392741 7.080608156773433 0.0 0.0 1.0
-122.21827284757151 96.2843602007729 6.764191634847187 0.0 0.0 1.0
88.05256764008871 -90.9520933324646 7.1914761033483945 0.0 0.0 1.0
-67.2820914655038 126.36425539041296 7.342834323466118 0.0 0.0 1.0
30.58004594278393 -126.57957556942826 9.620900626818694 0.0 0.0 1.0
108.08968851474647 40.150084902098044 11.67294477757667 0.0 0.0 1.0
17.256304910055356 80.14180564907146 7.719964252261703 0.0 0.0 1.0
-22.125102392984125 148.3318129672906 8.615266346667754 0.0 0.0 1.0
44.85670784793581 -76.80788695138612 9.30073973834931 0.0 0.0 1.0
89.19672939890695 38.281119541678244 10.290016296024962 0.0 0.0 1.0
-64.23031847432233 34.74189087339606 10.538924867422283 0.0 0.0 1.0
-15.810080543969661 145.492031154146 8.100448112977361 0.0 0.0 1.0
-22.036941655694584 -94.54474933637447 9.74575262885965 0.0 0.0 1.0
71.91858657266077 42.149547035065744 12.766002094377127 0.0 0.0 1.0
14.682251066604806 91.8409612923501 7.2299292407236075 0.0 0.0 1.0
86.64894655630896 48.81541013934793 12.189457306754209 0.0 0.0 1.0
64.55760485394364 48.76444703283183 13.072816857534194 0.0 0.0 1.0
11.069082518941768 97.30654808627929 6.65002091406009 0.0 0.0 1.0
84.1702708749258 32.597219311334186 6.398372824250551 0.0 0.0 1.0
58.8529716938521 56.665029600440256 12.670139046151531 0.0 0.0 1.0
21.83564159062318 40.40454665900233 6.539989353960634 0.0 0.0 1.0
70.53554091753142 -18.960360279390798 8.846004726073854 0.0 0.0 1.0
-96.85372183362453 12.06018124114527 6.3252118026158515 0.0 0.0 1.0
-84.7294347253898 13.80043913741927 7.686690915806689 0.0 0.0 1.0
75.78370381174251 20.788341649056605 8.555185977015448 0.0 0.0 1.0
2.7908776062900396 -140.68340304447085 9.377684717875725 0.0 0.0 1.0
-65.93997974460792 12.28362146417367 8.591891452435222 0.0 0.0 1.0
-23.45987663705216 -85.89616331363617 10.393771984788057 0.0 0.0 1.0
50.740104243743495 -7.420290044998549 7.510945543313719 0.0 0.0 1.0
17.72574963002369 -60.04639806306028 8.902811636638674 0.0 0.0 1.0
121.78319048265669 -55.50062852867088 8.065629124743083 0.0 0.0 1.0
-51.45227185488941 -27.116102679616308 8.621548958954326 0.0 0.0 1.0
-5.5271142389264805 -69.94417875195256 8.137667462135868 0.0 0.0 1.0
24.079608299759585 -75.56838516406064 8.013912673716327 0.0 0.0 1.0
120.20835852411894 -66.05667733299641 9.265808626239323 0.0 0.0 1.0
3.295739779544427 -0.9652147733679292 8.90578815025354 0.0 0.0 1.0
-13.326864817306411 -91.07212072576752 10.483172446713327 0.0 0.0 1.0
125.43123077140832 -74.90721033584012 9.054954382041213 0.0 0.0 1.0
-83.99827262016811 62.890602141315696 7.976384275100529 0.0 0.0 1.0
-94.91718854928857 111.64070280872666 7.071617575491519 0.0 0.0 1.0
-20.66413826307417 146.08437740738583 8.428424806339304 0.0 0.0 1.0
96.5459799245854 51.96774840988788 12.750033415795194 0.0 0.0 1.0
-30.999935623370384 34.152764719647635 11.582927045678256 0.0 0.0 1.0
51.037023152913726 37.977482084522116 12.130307192235422 0.0 0.0 1.0
-62.18720748838389 59.7372394570003 9.648223019878518 0.0 0.0 1.0
91.88575915577117 39.88105477742381 10.681067181505695 0.0 0.0 1.0
-28.713517428605787 55.39672679821417 9.041108018579962 0.0 0.0 1.0
-71.68886451610021 24.48171989294245 8.303232505661754 0.0 0.0 1.0
27.866733526520985 -94.421888755678 11.592487106324777 0.0 0.0 1.0
-0.9174863354398965 -105.32940314790466 10.482156721329648 0.0 0.0 1.0
18.06013547263312 -8.952112887517073 10.64657994855074 0.0 0.0 1.0
-10.956856619503759 -62.90434839376628 10.241928664506622 0.0 0.0 1.0
49.80657637707727 -127.85583682177894 10.568465973186724 0.0 0.0 1.0
5.915443115793248 2.386800590093748 8.403447931691161 0.0 0.0 1.0
-49.05700804027715 -73.98881672731363 6.2564584267979715 0.0 0.0 1.0
-87.72634452278793 -8.186320879863132 9.395770801641707 0.0 0.0 1.0
-0.594286829698641 -112.22197927125056 10.102382326746842 0.0 0.0 1.0
20.969863499516283 -93.34517339473362 10.473727812706729 0.0 0.0 1.0
22.77907873106376 -109.37545819607473 10.743874762151416 0.0 0.0 1.0
-35.34063327636996 8.844541453542577 9.779455670696278 0.0 0.0 1.0
-0.43412931709904296 -133.09050067510307 8.375403621985997 0.0 0.0 1.0
14.261217280741606 3.8082863762411137 10.955169118009712 0.0 0.0 1.0
-8.182043898334873 -127.77951970884621 7.8775965967175585 0.0 0.0 1.0
66.37542590110996 -93.83527561376445 11.357127089581954 0.0 0.0 1.0
-7.572611994916165 -14.713002692824483 10.95934201168841 0.0 0.0 1.0
65.11839169377272 -54.15234965070595 9.03793840147275 0.0 0.0 1.0
-20.850262193586985 -22.043802581270093 10.21712164455581 0.0 0.0 1.0
-13.051010558981782 -71.31336343000636 9.34169085487215 0.0 0.0 1.0
-17.83434451139246 -77.42791217110111 10.230706958736802 0.0 0.0 1.0
-38.59521719642786 -21.538938752211504 7.996601253689577 0.0 0.0 1.0
-12.318176526952392 -79.45630583188024 11.863720239889608 0.0 0.0 1.0
-49.63869511872503 9.189319401405722 9.790725965271996 0.0 0.0 1.0
92.59807983706645 -83.95356067776508 9.759764365688087 0.0 0.0 1.0
37.40435747265447 -129.49305792979334 10.8978256517031 0.0 0.0 1.0
-7.5813200113547365 -122.34833604787984 8.352054088342125 0.0 0.0 1.0
134.06911766863777 -52.8352270193016 8.815128407926114 0.0 0.0 1.0
33.76228550490012 -52.84088417911345 5.769340769377635 0.0 0.0 1.0
108.83304620598645 32.48263851203571 9.954374661867268 0.0 0.0 1.0
59.3045360024621 28.9465626396815 11.347331807801949 0.0 0.0 1.0
5.443833260574526 -65.3975735637016 9.362254828878072 0.0 0.0 1.0
-68.48375764910945 -47.37140861995917 8.970835017945719 0.0 0.0 1.0
18.861130382222804 -128.56723071751694 9.352155912095697 0.0 0.0 1.0
-114.97810913321253 55.788766424591586 6.695124178734285 0.0 0.0 1.0
-126.36958979576347 71.03925542832539 7.836093151236699 0.0 0.0 1.0
-104.19719286327656 46.095146187293246 8.732751922903962 0.0 0.0 1.0
-92.89010661462306 62.26396032564624 8.841328668954864 0.0 0.0 1.0
-85.57281381351002 116.73854032117393 7.1286053969070275 0.0 0.0 1.0
48.65356169149755 53.422724653955925 10.917406155558693 0.0 0.0 1.0
-44.34021088746522 51.25573833963694 11.483148291063202 0.0 0.0 1.0
78.59790448689013 42.389767126539816 13.123331247092759 0.0 0.0 1.0
55.874309931539386 43.77956799351021 13.571757900167647 0.0 0.0 1.0
-28.051613514900705 66.66223493814103 9.884553238863148 0.0 0.0 1.0
-5.069278849482011 111.68377406416839 9.466840931564288 0.0 0.0 1.0
59.66401384389184 64.59126273461115 10.952588883317652 0.0 0.0 1.0
76.78865839477288 48.44149060354305 12.275417124285434 0.0 0.0 1.0
90.23222878024062 58.372976658552105 11.609466918154013 0.0 0.0 1.0
